ply
format ascii 1.0
element vertex 498
property float x
property float y
property float z
property uchar diffuse_red
property uchar diffuse_green
property uchar diffuse_blue
end_header
0.499995 0.066671 4.869822 163 170 163
0.461443 0.160514 4.862114 113 141 162
0.425518 0.254772 4.848960 118 139 166
0.312115 0.306702 4.838120 41 50 91
0.484069 0.319237 4.848869 73 71 110
-1.032448 0.205347 4.303627 111 97 110
-1.032448 0.205347 4.303627 111 97 110
-1.161234 0.209801 4.194361 113 107 111
-1.233833 0.209729 4.131017 119 98 107
-1.127994 0.215017 4.227801 119 107 111
-0.909199 0.224364 4.399192 126 117 120
-0.826683 0.232585 4.446504 103 86 92
-0.727326 0.236377 4.513264 120 109 113
-0.594550 0.243285 4.586224 116 103 113
-1.065643 0.230232 4.280822 57 47 48
-1.037673 0.233277 4.306644 50 48 51
-0.870522 0.242959 4.420649 68 53 58
-0.758252 0.251417 4.498433 50 49 55
-0.758252 0.251417 4.498433 50 49 55
-0.191166 0.314362 4.742272 167 166 136
-1.103202 0.241991 4.253674 109 96 106
-1.136882 0.244476 4.222450 113 97 108
-1.199410 0.243012 4.167484 116 106 107
-0.907472 0.255318 4.402475 118 106 108
0.124643 0.375998 4.807006 168 179 171
-0.588275 0.274323 4.589330 130 112 124
0.389553 0.414660 4.834486 131 165 177
-0.779122 0.274348 4.476936 84 81 88
-1.263186 0.255350 4.111660 124 108 111
-0.826041 0.289437 4.458086 77 66 74
-0.826041 0.289437 4.458086 77 66 74
0.225735 0.422915 4.825864 147 164 182
-1.036676 0.284620 4.303583 86 80 84
0.182846 0.422887 4.814596 49 45 46
-0.726675 0.304612 4.514548 81 71 80
0.298603 0.447213 4.824027 161 163 178
-1.145836 0.289595 4.220074 68 66 71
-1.236292 0.295509 4.136370 87 85 88
-0.514513 0.329953 4.622296 75 74 82
-0.255487 0.386700 4.719523 139 119 82
-0.946482 0.322413 4.375833 90 69 76
-1.216914 0.314707 4.157558 83 81 86
-0.474394 0.350788 4.643318 94 68 69
-1.032355 0.326184 4.311454 86 71 76
-1.009781 0.334256 4.335206 96 89 97
-0.277291 0.406814 4.714426 149 117 70
-1.197948 0.326935 4.178048 61 64 71
-1.197948 0.326935 4.178048 61 64 71
-0.639920 0.359219 4.563828 102 95 103
-0.639920 0.359219 4.563828 102 95 103
-1.063242 0.342460 4.293439 65 69 68
-1.063242 0.342460 4.293439 65 69 68
-0.655355 0.366741 4.555242 72 61 67
0.121055 0.479175 4.800825 171 182 176
-0.486725 0.382521 4.638361 92 72 73
0.217322 0.504859 4.814001 70 67 78
-0.579535 0.380199 4.593423 77 64 73
-1.121751 0.357859 4.247911 73 67 67
-0.618935 0.386034 4.575386 94 81 90
-0.645259 0.389854 4.562463 97 85 97
-1.176203 0.363514 4.203046 116 110 110
-0.449864 0.411768 4.644230 77 66 64
-0.300357 0.458440 4.704238 171 170 165
-0.992158 0.392279 4.349126 108 94 94
-1.049749 0.393477 4.310024 107 98 99
0.228369 0.574465 4.810779 63 65 64
-1.021580 0.433956 4.336520 92 94 106
-1.220780 0.415945 4.171384 83 78 82
-1.208530 0.417146 4.182308 139 134 140
0.241684 0.599265 4.810424 171 174 189
-1.229570 0.451965 4.164596 98 81 87
-0.479114 0.504849 4.633556 84 77 84
-0.218076 0.563171 4.731662 44 45 49
0.310514 0.670841 4.812961 51 48 91
-1.126070 0.496146 4.261675 111 114 123
-0.612200 0.554830 4.582471 42 59 69
0.030046 0.652531 4.783249 125 126 120
-0.971529 0.568270 4.372266 178 156 143
-0.971529 0.568270 4.372266 178 156 143
-0.622332 0.572245 4.579810 102 108 98
-0.137143 0.635739 4.741122 117 111 113
0.333753 0.734787 4.807027 34 43 86
0.306186 0.740363 4.807364 68 55 108
-0.963253 0.597747 4.378784 182 159 145
-0.150532 0.663649 4.743725 189 184 155
-0.929526 0.617919 4.403546 66 63 74
0.224418 0.744075 4.802789 52 54 49
0.224418 0.744075 4.802789 52 54 49
0.493199 0.759718 4.807520 87 85 122
0.304907 0.763293 4.804825 76 60 107
-0.299303 0.670418 4.701796 85 131 103
-0.547136 0.636370 4.607792 42 52 54
0.491081 0.783800 4.806547 84 78 112
0.204157 0.772173 4.791943 147 149 162
-0.966788 0.645727 4.378221 184 162 148
-0.821575 0.660289 4.475570 136 121 118
-0.782504 0.673140 4.492534 132 146 146
0.009912 0.747051 4.775810 18 23 26
0.351660 0.807930 4.805914 120 149 155
-0.746862 0.689390 4.515718 146 160 161
-0.034050 0.758306 4.762877 172 188 211
-1.010762 0.671789 4.353142 185 175 165
0.220766 0.809885 4.797688 54 57 46
0.474329 0.824792 4.800298 83 72 112
-0.952400 0.686283 4.392512 159 146 130
-0.914231 0.690912 4.415639 182 181 177
-0.617542 0.704481 4.584130 124 136 134
0.224935 0.826512 4.793596 133 159 172
-0.920316 0.706841 4.416965 79 75 76
-0.920316 0.706841 4.416965 79 75 76
-1.095752 0.687799 4.296874 121 118 125
-0.974409 0.707567 4.379362 170 166 155
-0.594845 0.730501 4.595278 109 120 116
-1.264559 0.641701 4.159093 121 107 107
-0.849150 0.731195 4.461099 75 71 72
-0.812822 0.734365 4.479335 118 99 85
-0.705614 0.739712 4.540316 129 144 141
-0.705614 0.739712 4.540316 129 144 141
-0.705614 0.739712 4.540316 129 144 141
-0.949572 0.727763 4.399064 90 96 84
0.049049 0.813534 4.777818 22 20 31
-0.767589 0.750121 4.507172 140 154 154
-0.983990 0.731146 4.376294 188 180 169
-0.962736 0.735590 4.388591 154 149 143
-0.781325 0.757395 4.500430 73 65 63
-0.121970 0.820521 4.741756 254 255 255
-0.696874 0.761759 4.542721 140 166 165
-1.296104 0.662953 4.133560 108 93 96
-0.712441 0.767345 4.538065 129 141 141
0.003350 0.834243 4.772271 126 134 153
-0.350833 0.761620 4.685878 47 46 44
-0.952775 0.749295 4.397736 73 69 66
-1.029983 0.743504 4.345064 205 193 177
0.289111 0.913640 4.791590 172 151 166
-0.744188 0.793814 4.522555 144 168 168
-0.709787 0.809707 4.541856 142 160 164
-1.048996 0.775890 4.337043 109 105 106
-1.048996 0.775890 4.337043 109 105 106
-0.862935 0.811812 4.454540 43 55 53
0.488372 0.955481 4.791712 81 74 115
-0.785501 0.830739 4.502660 113 101 87
0.434303 0.959407 4.788352 114 140 165
-0.716688 0.859257 4.539404 105 122 106
0.421914 0.988414 4.788918 126 169 188
-0.265909 0.884464 4.711443 128 137 132
-0.218255 0.911040 4.721723 84 124 124
0.301026 1.021119 4.785745 54 54 92
0.290369 1.040294 4.786246 147 134 164
0.417054 1.051960 4.786773 35 63 74
-1.031800 0.891673 4.359042 116 112 111
-0.567103 0.931876 4.609436 44 44 44
0.386647 1.058210 4.783617 46 69 101
-0.990978 0.906494 4.386850 70 72 71
-0.990978 0.906494 4.386850 70 72 71
-0.990978 0.906494 4.386850 70 72 71
-0.772652 0.937138 4.515067 155 173 173
0.052187 1.039338 4.766650 78 98 125
0.415700 1.080298 4.786499 47 63 96
0.290889 1.088803 4.781950 140 137 154
-0.895959 0.947327 4.448038 52 64 50
-0.895959 0.947327 4.448038 52 64 50
-1.305927 0.851604 4.153019 114 103 109
0.301516 1.101255 4.780864 43 61 99
0.430547 1.102674 4.778958 111 141 169
-0.781625 0.976126 4.513222 152 167 164
-1.046140 0.942850 4.352198 187 201 175
-1.192712 0.908477 4.251388 213 236 218
-0.674087 0.994999 4.564480 77 67 65
-0.870196 1.014750 4.468269 162 183 184
-1.014788 0.998130 4.381203 77 77 85
-1.014788 0.998130 4.381203 77 77 85
0.481253 1.166277 4.769397 80 73 117
0.030659 1.147947 4.758141 97 139 177
0.376565 1.170652 4.774697 120 158 181
0.376565 1.170652 4.774697 120 158 181
-0.986692 1.013996 4.399962 65 73 76
-0.986692 1.013996 4.399962 65 73 76
0.200288 1.161186 4.773319 50 46 47
0.336597 1.176671 4.776610 91 117 152
0.214677 1.172045 4.773806 132 135 144
-0.527851 1.060510 4.622370 43 43 51
-0.027277 1.170667 4.754579 94 127 178
-0.150851 1.168836 4.729005 158 196 235
0.279301 1.216104 4.770329 152 148 165
-0.834252 1.082910 4.493112 159 180 183
0.337633 1.225903 4.771814 102 130 154
-0.963173 1.079557 4.421130 183 196 187
0.279450 1.253199 4.767938 164 149 170
-0.770135 1.116676 4.527312 118 141 133
-0.143523 1.228061 4.734121 104 136 175
0.364072 1.262868 4.768243 131 158 179
-0.035322 1.260008 4.745985 156 188 199
-0.944594 1.135410 4.437486 73 81 84
0.390473 1.295588 4.755808 125 155 179
-1.326631 1.077681 4.165137 183 174 175
-1.320776 1.097797 4.177675 74 68 72
-0.969119 1.209027 4.433072 80 101 96
0.279532 1.388674 4.759751 146 129 161
-0.483603 1.309857 4.646515 82 74 87
0.426953 1.489427 4.746855 96 123 150
0.468586 1.491033 4.739272 97 84 128
0.372818 1.496652 4.748412 110 136 151
0.411149 1.510255 4.747659 70 77 106
0.424443 1.526841 4.742849 85 113 137
0.375956 1.558722 4.743908 94 114 149
0.451376 1.557170 4.734593 89 81 120
0.348015 1.592868 4.744320 68 60 111
0.366629 1.602100 4.740509 78 81 126
0.009337 -0.363212 4.814208 166 225 255
0.087081 -0.205974 4.839201 149 214 254
0.477664 0.095718 4.870908 81 86 89
0.499811 0.152112 4.866079 144 151 143
0.480058 0.168170 4.861916 67 81 68
0.480058 0.168170 4.861916 67 81 68
0.500050 0.175001 4.865459 126 138 126
0.500050 0.175001 4.865459 126 138 126
0.495723 0.280540 4.853294 101 107 105
0.465059 0.324109 4.850445 51 49 73
-1.081960 0.213803 4.262672 119 113 117
-1.004802 0.218101 4.328557 105 99 103
-0.667281 0.234692 4.546896 136 128 139
-0.275051 0.308778 4.711941 217 217 205
0.207538 0.366901 4.821417 140 150 162
-0.684806 0.253217 4.534889 64 50 65
-0.519702 0.259732 4.616540 65 48 64
-1.229183 0.238778 4.133362 106 101 105
-0.658489 0.273276 4.551463 121 111 119
-0.612157 0.275472 4.577052 132 115 131
-1.161360 0.261276 4.203671 70 70 80
-0.853116 0.280991 4.438737 84 77 85
0.209111 0.436465 4.816510 71 75 104
-1.085058 0.296063 4.276166 79 70 73
-0.617109 0.317588 4.575203 85 83 86
0.312219 0.462115 4.827384 44 50 102
0.128576 0.435256 4.804427 126 133 126
-0.910231 0.317708 4.402917 123 121 124
-0.910231 0.317708 4.402917 123 121 124
-1.062679 0.324191 4.293577 98 91 99
-1.062679 0.324191 4.293577 98 91 99
-0.667231 0.349629 4.550342 109 100 105
-0.535283 0.385410 4.615882 62 59 68
-0.561002 0.390690 4.606386 98 84 99
0.257944 0.529717 4.822170 127 123 140
-0.500913 0.399842 4.624373 128 108 110
-0.529469 0.405528 4.617696 104 93 97
0.482877 0.556610 4.828782 101 94 127
-0.283836 0.478400 4.707230 111 91 66
-1.171633 0.399757 4.209451 55 57 69
-1.040613 0.444724 4.320224 99 102 107
-0.302776 0.520246 4.700151 66 63 54
0.049681 0.596600 4.783746 129 127 104
-1.092002 0.480558 4.278355 111 120 125
0.415381 0.656983 4.815518 127 165 188
-0.106810 0.648969 4.751986 176 169 143
0.246894 0.721610 4.805823 158 164 178
0.410471 0.763261 4.807497 140 175 195
-1.201068 0.572119 4.208509 66 60 60
-1.024000 0.628841 4.339375 192 180 164
-0.019676 0.741573 4.766471 102 125 141
-0.680265 0.696308 4.551437 133 150 157
-0.013643 0.767063 4.769638 89 106 126
0.306482 0.829713 4.801554 71 60 94
-0.707032 0.717853 4.538859 141 165 167
-0.940334 0.756750 4.405770 187 203 202
-0.872243 0.780834 4.449785 149 137 123
-0.677557 0.795811 4.553962 132 153 156
-0.677557 0.795811 4.553962 132 153 156
-0.828694 0.801921 4.472468 108 91 73
-1.258660 0.728194 4.173993 87 105 117
-1.243222 0.732501 4.189895 29 35 33
0.400288 0.957798 4.790547 118 141 157
0.434355 0.958441 4.787942 115 143 165
-0.812713 0.853432 4.487483 81 92 86
0.401355 0.988972 4.787242 36 51 80
-1.112120 0.834268 4.293905 203 179 169
-0.754240 0.901576 4.524833 157 173 172
0.471099 1.063092 4.777861 74 67 109
0.302811 1.068500 4.782298 52 47 103
-1.097843 0.898793 4.312907 193 207 182
-0.734125 0.948504 4.535594 126 143 150
0.431242 1.083305 4.782057 101 132 153
-1.193218 0.907748 4.252586 213 236 218
-0.783816 1.004778 4.513966 148 167 171
-0.075067 1.128033 4.747969 67 98 142
-0.960659 1.005357 4.415737 148 145 128
0.394688 1.165846 4.775397 101 124 156
-0.873738 1.032352 4.473249 129 139 131
-0.768730 1.047876 4.526929 108 125 119
0.024092 1.173062 4.753839 67 99 140
0.024092 1.173062 4.753839 67 99 140
-0.334950 1.058678 4.684676 41 40 35
-1.055051 1.035172 4.360705 208 225 215
0.447961 1.248507 4.765291 55 53 74
-0.905352 1.092396 4.454730 130 142 128
-0.075128 1.218847 4.740655 153 191 202
-0.754925 1.129186 4.537901 137 167 177
0.447488 1.260479 4.762969 53 47 61
-1.163247 1.058107 4.281844 218 233 226
0.464953 1.272250 4.760467 74 69 110
0.077795 1.269808 4.757899 56 84 124
-1.106216 1.098998 4.329929 209 222 215
0.039876 1.270687 4.757537 174 199 203
-0.824396 1.153394 4.496018 160 185 190
-0.092238 1.266905 4.736295 106 135 169
-0.037478 1.281431 4.747407 160 189 203
-0.917812 1.160461 4.456104 174 195 188
0.027074 1.299147 4.757713 170 195 199
-1.295913 1.071776 4.194200 98 79 83
0.357952 1.332970 4.761735 110 129 159
-0.995566 1.161567 4.408220 168 185 167
-0.995566 1.161567 4.408220 168 185 167
0.027628 1.315842 4.754762 165 196 191
0.467170 1.361839 4.746331 72 69 100
0.172359 1.361156 4.762236 114 103 117
-1.297131 1.150743 4.204990 51 51 53
0.469426 1.421509 4.745841 87 73 108
0.469426 1.421509 4.745841 87 73 108
-0.864794 1.261954 4.493840 150 178 189
0.277034 1.447605 4.759520 150 129 138
0.322049 1.501670 4.751111 50 56 78
-1.235161 1.269230 4.267932 178 178 154
0.346226 1.544860 4.747652 104 136 161
-0.527361 -0.583251 4.484777 201 217 253
-0.508840 -0.820439 4.576565 171 221 254
0.391575 0.133187 4.858691 70 109 138
0.297270 0.150572 4.846370 195 209 186
0.497100 0.222420 4.857643 112 122 131
-0.434660 0.214750 4.657496 90 93 126
-1.174828 0.225238 4.187230 50 44 44
-1.272106 0.222394 4.096903 84 74 75
-0.866654 0.263279 4.426717 115 107 105
0.060823 0.402842 4.795898 59 59 67
0.064931 0.437437 4.801998 67 67 69
0.226350 0.455527 4.819452 160 178 188
0.170164 0.465688 4.812674 175 192 173
-0.429929 0.358843 4.658617 112 80 81
0.066400 0.482650 4.790142 81 87 85
0.191994 0.510578 4.806597 150 162 178
-0.511241 0.432199 4.625401 76 60 71
0.363876 0.586773 4.821410 126 149 167
-1.186954 0.419175 4.195838 74 73 79
-0.272561 0.513132 4.709775 106 89 61
-0.850152 0.656817 4.458969 142 119 111
-1.065653 0.662078 4.317962 207 192 173
-0.429268 0.699704 4.662210 71 61 60
-1.011704 0.706936 4.355600 195 183 161
-1.125128 0.735284 4.282598 219 187 174
0.046581 0.861724 4.766648 42 49 55
-0.258045 0.845295 4.714689 37 78 60
-0.687196 0.827717 4.550541 139 161 158
-1.131271 0.774766 4.281907 215 189 176
0.143045 0.928103 4.782269 47 44 39
-1.171712 0.793635 4.250007 211 232 223
0.135016 0.955778 4.780739 194 212 216
-0.420221 0.867149 4.665279 37 39 36
0.150138 0.983992 4.780064 39 28 32
-1.146560 0.842698 4.275913 200 183 173
0.377331 1.107706 4.778002 99 127 167
-0.732166 0.985220 4.538674 134 149 156
-0.843301 0.986006 4.483980 160 182 179
-0.084327 1.094871 4.746249 65 99 144
-0.866517 0.993224 4.471240 146 158 148
-0.866517 0.993224 4.471240 146 158 148
-0.922830 1.037474 4.440706 53 62 67
-0.670088 1.071667 4.572922 94 79 82
-1.150248 1.016098 4.290980 212 231 227
-1.091050 1.067362 4.333191 219 236 228
0.095153 1.259327 4.765757 69 113 158
-0.642531 1.161581 4.586518 34 49 70
-0.891772 1.171540 4.467749 166 192 183
0.018736 1.344498 4.752002 170 199 197
0.835166 1.476817 4.685200 158 224 255
0.386858 1.456810 4.753034 116 144 165
0.342387 1.508249 4.750271 122 153 171
-1.204213 1.288650 4.283971 195 189 177
0.483453 1.646294 4.725508 125 202 255
-0.773324 2.449479 4.550366 214 215 199
0.525178 0.072161 4.873567 46 76 112
-0.520111 0.211464 4.616968 97 104 110
0.154240 0.415129 4.809174 201 203 192
0.065317 0.436345 4.799125 101 112 104
0.200014 0.462395 4.815234 39 45 45
0.200014 0.462395 4.815234 39 45 45
-1.274259 0.328214 4.107802 91 81 79
-1.025016 0.383770 4.324335 108 96 100
0.109939 0.522909 4.794640 55 67 67
-0.354917 0.489815 4.683644 160 166 154
-1.247509 0.409228 4.141867 112 104 117
-1.298108 0.455570 4.099995 192 185 177
-0.078966 0.630881 4.755850 58 62 48
-0.844288 0.611563 4.454351 131 122 113
-0.059203 0.691170 4.762939 94 99 93
-0.704105 0.645076 4.542506 141 165 177
-1.284763 0.577992 4.132095 114 105 108
-1.064912 0.661387 4.316164 208 190 176
-0.935682 0.695316 4.403591 81 80 75
-0.935682 0.695316 4.403591 81 80 75
-1.217396 0.643867 4.191814 106 124 138
-0.603730 0.740944 4.583029 111 128 122
-0.977314 0.740731 4.386836 183 174 167
-0.822442 0.773979 4.478503 140 126 117
0.164122 0.903092 4.786514 158 144 157
0.149858 0.984350 4.782524 39 28 32
-1.064954 0.875992 4.334696 91 85 95
-1.122184 0.903795 4.299868 219 242 226
-1.163511 0.918543 4.269867 217 238 231
-0.984342 0.966169 4.400519 153 159 155
-1.107116 0.967427 4.318467 226 245 239
0.004462 1.151495 4.754539 71 100 142
-0.043882 1.230494 4.752054 64 74 133
-0.043882 1.230494 4.752054 64 74 133
-1.200899 1.291433 4.286773 195 191 180
0.770620 2.412761 4.580095 159 223 255
-1.211669 -0.881820 4.081487 194 195 177
-0.194671 -0.273901 4.763962 164 228 255
0.342192 0.085814 4.860820 52 95 137
0.293164 0.276667 4.835066 194 214 241
-1.269302 0.172743 4.095454 95 89 93
-1.269302 0.172743 4.095454 95 89 93
-1.223154 0.172516 4.139935 122 100 103
-0.751921 0.283151 4.498060 99 94 101
-0.579512 0.288932 4.589759 114 100 113
-0.330456 0.460119 4.698154 99 100 86
-0.779262 0.447145 4.486278 92 103 109
-1.275929 0.408518 4.115790 100 86 85
-0.380294 0.512680 4.678913 83 54 50
-1.277514 0.470301 4.123557 119 94 97
-0.283182 0.658482 4.706878 95 136 120
-0.789587 0.630408 4.491500 131 152 153
-0.302353 0.709646 4.704506 38 74 62
-0.722600 0.817502 4.532398 132 149 143
-0.054450 0.882915 4.755654 136 156 181
0.045806 0.898974 4.774544 224 246 244
-0.995807 0.821785 4.379414 178 171 155
-0.886638 0.860743 4.447561 140 152 142
-0.698143 0.918527 4.547443 64 68 54
-1.047883 0.911732 4.347180 191 205 190
-1.265668 0.904209 4.192249 107 96 94
-1.195415 1.219839 4.283744 115 103 107
-1.346382 0.941322 3.804943 166 161 155
0.539084 -0.029737 4.885824 133 207 254
0.330423 0.316414 4.838784 57 55 94
0.324605 0.798271 4.803353 47 47 97
-0.472488 0.686808 4.643807 36 30 30
-0.253073 0.751178 4.716003 102 140 117
-1.069450 0.720366 4.316831 178 177 173
0.321700 0.952666 4.796074 43 46 77
-1.587900 0.518256 3.824005 159 160 155
-1.123406 0.854286 4.287178 188 171 161
-1.123406 0.854286 4.287178 188 171 161
0.267550 1.038626 4.783033 153 150 177
-0.710020 1.140331 4.558051 124 161 179
0.187932 1.297347 4.761338 115 114 130
-1.196555 1.183850 4.284658 117 97 106
-1.687072 1.624932 3.938903 133 138 131
-0.354093 2.107448 4.642549 165 226 255
-1.668631 1.874765 4.013325 148 139 130
-0.796896 -1.074798 4.458209 220 217 202
-1.663511 -0.822267 3.400447 175 168 160
0.330410 0.316668 4.838960 57 55 94
0.264147 0.697980 4.805676 143 138 161
0.263696 0.730369 4.803615 133 118 147
-1.000602 0.735295 4.366639 180 151 137
-0.923587 0.775220 4.416404 176 187 181
-1.015964 0.824163 4.360257 174 157 147
-0.628281 0.898947 4.583465 104 125 108
-1.060084 1.019499 4.353597 203 226 218
-0.505452 1.105218 4.631505 22 21 29
0.567464 2.763951 4.583263 148 219 249
0.352470 0.117745 4.854342 53 79 116
-0.801416 0.323016 4.473964 120 101 107
-0.668318 0.331232 4.544408 111 94 104
-0.169589 0.617236 4.736073 176 171 152
0.329103 0.986166 4.789943 36 52 86
-0.861008 1.004655 4.472517 145 157 143
0.237032 1.133480 4.780361 128 120 135
0.087538 1.161955 4.759835 104 132 180
0.371262 1.503935 4.745727 104 132 146
-1.685101 1.038686 3.822593 144 143 138
0.187778 2.511165 4.663871 158 223 255
0.558646 3.030206 4.554143 156 222 255
0.481639 3.031984 4.571726 148 216 255
0.121983 0.314961 4.817085 43 44 48
-0.249729 0.574358 4.716862 34 46 42
-0.249729 0.574358 4.716862 34 46 42
0.396973 0.910470 4.794696 126 152 165
0.396973 0.910470 4.794696 126 152 165
0.395076 1.154380 4.775315 101 122 151
-0.944030 1.021437 4.429158 118 109 92
-1.684437 1.039640 3.821330 147 146 141
-2.025645 2.153031 3.703186 129 114 109
-0.201460 -0.808507 4.779451 164 225 255
0.129282 0.550024 4.795469 34 39 33
0.052484 0.787442 4.775496 16 17 21
-1.253076 0.774456 4.188531 33 34 38
-0.107838 0.809769 4.745944 232 242 252
-0.818436 0.774028 4.481763 127 113 110
-1.760038 0.637550 3.614892 155 154 149
